ply
format ascii 1.0
element vertex 1255
property float x
property float y
property float z
property uchar red
property uchar green
property uchar blue
end_header
0.385788 -0.758808 0.116113 0 127 127
0.180506 0.408462 -0.417880 0 127 127
-0.144583 0.859491 -0.100412 0 127 127
0.148227 0.023501 -0.417880 0 127 127
0.211721 -0.867549 0.276507 0 127 127
0.385788 -0.536730 -0.183251 0 127 127
0.045510 0.149582 0.366931 76 0 153
0.270994 0.859491 0.022157 0 127 127
0.385788 -0.412960 0.353378 76 0 153
-0.392564 -0.220964 -0.130832 0 127 127
0.269345 -0.148478 -0.417880 0 127 127
-0.392564 -0.087911 -0.199948 0 127 127
-0.050183 0.859491 0.316263 0 127 127
0.277230 0.353150 0.263178 76 0 153
-0.392564 0.648278 0.358728 76 0 153
-0.153814 -0.500806 0.263178 76 0 153
-0.161565 -0.072603 0.360472 76 0 153
-0.023659 0.364520 0.360472 0 127 127
0.385788 0.549717 0.114306 0 127 127
-0.392564 0.559138 -0.200431 0 127 127
0.156119 -0.220791 0.263178 76 0 153
0.321682 0.859491 -0.243599 0 127 127
0.385788 0.249632 0.360144 0 127 127
-0.392564 -0.029907 0.236545 0 127 127
-0.200135 0.082840 0.263178 76 0 153
-0.289625 -0.867549 0.319795 0 127 127
-0.248660 0.519874 0.360472 76 0 153
-0.297419 0.386779 -0.417880 0 127 127
0.199448 0.040220 0.263178 76 0 153
-0.294613 -0.115300 0.263178 76 0 153
-0.340250 -0.204222 0.360472 76 0 153
-0.275798 -0.867549 -0.314371 0 127 127
-0.392564 0.646706 -0.111223 0 127 127
-0.392564 -0.792439 -0.014876 0 127 127
0.088880 0.762462 -0.417880 0 127 127
-0.175828 -0.807728 -0.417880 0 127 127
-0.392564 -0.126911 -0.355577 0 127 127
0.385788 0.035128 -0.254777 0 127 127
0.385788 0.277698 -0.330368 0 127 127
-0.004503 0.576898 0.360472 76 0 153
-0.040014 -0.867549 -0.030117 0 127 127
-0.392564 0.602361 0.225046 0 127 127
-0.254334 0.859491 -0.165259 0 127 127
0.141868 0.859491 0.348535 0 127 127
0.228989 -0.858024 -0.417880 0 127 127
-0.355519 0.748832 0.360472 76 0 153
0.165492 0.478506 0.360472 76 0 153
-0.392564 -0.431512 0.115000 0 127 127
0.385788 0.300766 0.159291 0 127 127
-0.392564 0.112726 -0.166563 0 127 127
0.297729 0.777119 -0.417880 0 127 127
-0.000109 -0.761036 0.263178 76 0 153
-0.345568 -0.392180 -0.417880 0 127 127
0.073991 -0.538902 -0.417880 0 127 127
-0.392564 -0.146910 0.049256 0 127 127
0.361473 -0.867549 0.254608 0 127 127
0.326295 0.110499 -0.417880 0 127 127
0.145078 0.630321 -0.417880 0 127 127
0.325501 0.859491 0.115616 0 127 127
-0.140529 0.169689 0.360472 76 0 153
-0.392564 0.295941 0.109013 0 127 127
0.101464 -0.845617 0.263178 0 127 127
0.030931 0.525000 0.263178 76 0 153
0.025606 -0.091212 0.263178 76 0 153
0.231309 -0.647551 -0.417880 0 127 127
0.001378 -0.737487 -0.417880 0 127 127
-0.000435 -0.355848 -0.417880 0 127 127
0.115651 0.628712 0.263178 76 0 153
0.385788 -0.174215 -0.311444 0 127 127
-0.392564 -0.428721 -0.051957 0 127 127
0.385788 -0.660693 -0.318111 0 127 127
0.273341 -0.854881 0.360472 0 127 127
-0.392564 -0.322276 0.196547 0 127 127
0.022011 0.859491 0.230474 76 0 153
-0.066260 0.625580 -0.417880 0 127 127
-0.144175 0.795208 0.263178 76 0 153
-0.238042 -0.867549 -0.100226 0 127 127
-0.392564 0.333877 -0.027273 0 127 127
-0.392564 -0.462649 -0.329812 0 127 127
0.280341 0.747440 0.369229 76 0 153
0.116152 -0.573370 0.360472 76 0 153
0.209023 0.319791 0.359595 0 127 127
0.327827 0.336065 0.360472 0 127 127
0.385788 0.451186 -0.146577 0 127 127
0.114503 -0.366532 0.360472 76 0 153
-0.329570 0.331167 0.360472 0 127 127
-0.392564 0.758226 -0.167068 0 127 127
-0.294860 0.040028 0.263178 76 0 153
0.385788 0.222262 -0.154174 0 127 127
-0.180685 -0.041103 -0.417880 0 127 127
0.063726 0.366259 0.263178 76 0 153
0.008330 -0.191908 0.360472 76 0 153
-0.162679 -0.867549 0.259230 0 127 127
-0.112671 0.023862 0.263178 76 0 153
-0.105975 -0.867549 0.061722 0 127 127
0.288557 0.519187 0.360472 76 0 153
0.385788 -0.222687 0.264358 0 127 127
-0.392564 0.172205 -0.063947 0 127 127
0.385788 -0.051287 0.139928 0 127 127
-0.100963 0.637915 0.263178 76 0 153
-0.258662 -0.466042 -0.417880 0 127 127
0.361139 -0.041517 -0.417880 0 127 127
0.161740 -0.867549 -0.093497 0 127 127
-0.094268 -0.649316 0.360472 76 0 153
-0.392564 0.171420 0.282007 0 127 127
0.199585 0.792936 0.263178 76 0 153
-0.053485 -0.867549 0.162623 0 127 127
0.385788 -0.419089 -0.032629 0 127 127
-0.039606 -0.073781 -0.417880 0 127 127
-0.157889 0.421330 0.263178 76 0 153
-0.392564 -0.016736 -0.126273 0 127 127
0.213608 0.430947 0.263178 76 0 153
-0.356380 0.549025 -0.417880 0 127 127
-0.392564 0.070828 -0.328291 0 127 127
0.385788 -0.290676 -0.187139 0 127 127
0.385788 0.733029 0.003226 0 127 127
0.312945 0.446576 0.263178 76 0 153
0.385788 -0.473261 0.078537 0 127 127
0.254414 -0.345746 -0.417880 0 127 127
0.385788 -0.638125 0.316430 76 0 153
0.299596 -0.867549 -0.067571 0 127 127
-0.237162 0.073498 0.360472 76 0 153
0.385788 0.795328 -0.155155 0 127 127
0.385788 -0.776751 0.213891 0 127 127
0.385788 -0.245052 -0.085784 0 127 127
0.061675 -0.867549 0.151710 0 127 127
0.385788 -0.147176 0.080747 0 127 127
-0.386453 0.775245 -0.417880 0 127 127
-0.283409 0.666002 0.263178 76 0 153
-0.186544 0.859491 -0.327606 0 127 127
-0.349158 -0.867549 -0.198129 0 127 127
-0.321922 -0.598809 -0.417880 0 127 127
0.385788 0.116002 0.061434 0 127 127
0.385788 -0.442580 -0.137384 0 127 127
0.304967 0.638525 0.263178 76 0 153
-0.392564 -0.391526 0.322515 76 0 153
0.385788 0.854719 -0.061123 0 127 127
-0.392564 0.431577 -0.040649 0 127 127
-0.295367 0.836766 0.360472 0 127 127
-0.001863 0.226157 -0.417880 0 127 127
0.385788 0.843137 -0.319495 0 127 127
0.092058 -0.737608 0.360472 76 0 153
0.338064 -0.230993 -0.417880 0 127 127
0.335798 0.299630 -0.417880 0 127 127
0.269948 0.201811 -0.417880 0 127 127
-0.392564 -0.545757 0.286037 0 127 127
-0.392564 0.855899 -0.300146 0 127 127
0.385788 0.731183 0.236325 0 127 127
-0.392564 -0.832235 0.159420 0 127 127
-0.055386 0.859491 0.107871 0 127 127
-0.277703 0.859491 0.035090 0 127 127
-0.392564 0.016843 0.151448 0 127 127
0.045091 -0.867549 -0.341338 0 127 127
0.310397 0.262139 0.263178 76 0 153
-0.392564 0.261424 -0.345078 0 127 127
-0.174322 0.684429 0.360472 76 0 153
0.385788 -0.314271 -0.012886 0 127 127
-0.294510 -0.270830 -0.417880 0 127 127
-0.392564 0.113731 0.198925 0 127 127
0.385788 0.104354 0.221869 0 127 127
0.385788 -0.662752 0.107192 0 127 127
-0.392564 -0.584566 -0.013190 0 127 127
-0.392564 0.472950 -0.157217 0 127 127
0.043590 -0.291679 0.263178 76 0 153
-0.044175 0.673476 0.360472 76 0 153
-0.392564 -0.738254 -0.094335 0 127 127
-0.389593 -0.867549 0.263869 0 127 127
0.191322 0.658745 0.360472 76 0 153
0.385788 0.624597 -0.061443 0 127 127
-0.014862 -0.094785 0.360472 76 0 153
-0.030199 -0.867549 -0.154202 0 127 127
0.175342 -0.778107 0.263178 76 0 153
0.274450 -0.129462 0.360472 76 0 153
-0.067564 0.505166 0.360472 76 0 153
-0.392564 -0.256899 -0.322910 0 127 127
0.091670 -0.465351 0.263178 76 0 153
0.385788 0.643562 0.313697 76 0 153
-0.392564 -0.165284 0.168963 0 127 127
-0.285888 -0.518522 0.360472 76 0 153
-0.166877 0.859491 -0.007750 0 127 127
0.385788 -0.866827 -0.113757 0 127 127
0.385788 -0.371384 -0.336517 0 127 127
0.082814 0.266916 0.263178 0 127 127
-0.106865 0.333928 0.263178 76 0 153
-0.365848 0.470592 0.263178 76 0 153
-0.247356 -0.867549 0.135147 0 127 127
0.277175 -0.867549 0.208264 0 127 127
-0.160662 -0.377373 0.360472 76 0 153
-0.004111 -0.479598 0.360472 76 0 153
0.145341 -0.042222 0.360472 76 0 153
0.068081 -0.867549 -0.191813 0 127 127
0.381825 -0.867549 -0.230782 0 127 127
0.385788 0.313138 -0.130671 0 127 127
0.308183 -0.334167 0.360472 76 0 153
0.385788 0.681310 -0.201491 0 127 127
-0.392564 0.850959 0.118701 0 127 127
0.319144 0.859491 0.283597 0 127 127
0.379908 -0.867549 -0.324663 0 127 127
-0.392564 0.394245 -0.335520 0 127 127
-0.055934 -0.163572 0.263178 76 0 153
-0.392564 -0.059905 -0.288525 0 127 127
0.385788 0.746723 -0.344091 0 127 127
0.157255 0.542028 0.263178 76 0 153
-0.392564 0.379413 0.152888 0 127 127
-0.392564 -0.523111 0.128705 0 127 127
-0.377656 -0.714911 0.360472 76 0 153
0.165687 -0.125265 0.263178 76 0 153
0.079916 -0.417219 -0.417880 0 127 127
0.248430 -0.528622 0.263178 76 0 153
-0.212905 0.607221 0.263178 76 0 153
-0.392564 0.797245 0.287000 76 0 153
0.031237 -0.650737 0.263178 76 0 153
0.312418 -0.867549 0.036529 0 127 127
0.356886 -0.135263 0.263178 76 0 153
-0.089903 -0.491790 -0.417880 0 127 127
-0.392564 0.116292 0.011146 0 127 127
-0.151580 -0.628017 -0.417880 0 127 127
-0.057325 -0.867549 -0.343441 0 127 127
-0.313319 -0.036615 -0.417880 0 127 127
-0.300934 -0.725317 -0.417880 0 127 127
0.269522 -0.762359 0.360472 76 0 153
-0.392564 0.197969 0.107514 0 127 127
-0.069644 -0.257426 0.360472 76 0 153
-0.211273 0.462581 0.432287 153 76 0
-0.054439 0.081969 0.360472 76 0 153
-0.158140 0.510034 0.360472 76 0 153
-0.392564 -0.013786 0.331606 76 0 153
-0.178412 0.489470 -0.417880 0 127 127
0.164290 -0.867549 0.081192 0 127 127
0.385788 0.063185 -0.119761 0 127 127
0.057220 -0.654582 0.360472 76 0 153
0.385788 0.533896 -0.275064 0 127 127
-0.158906 -0.282259 0.263178 76 0 153
-0.171146 -0.297569 -0.417880 0 127 127
-0.130404 -0.587378 0.263178 76 0 153
0.197087 -0.478568 0.360472 76 0 153
-0.031376 0.215239 0.360472 76 0 153
-0.328510 -0.297434 0.263178 76 0 153
0.143381 -0.662619 -0.417880 0 127 127
-0.063015 0.222656 0.263178 76 0 153
-0.087530 0.859491 -0.308996 0 127 127
-0.084600 -0.796470 -0.417880 0 127 127
0.086291 -0.849882 -0.417880 0 127 127
-0.234919 -0.226759 0.360472 76 0 153
-0.016066 -0.010850 0.263178 76 0 153
0.138745 -0.867549 0.342547 0 127 127
0.009289 0.369493 -0.417880 0 127 127
0.295777 0.044437 0.360472 76 0 153
0.385788 0.301871 -0.032579 0 127 127
-0.270737 0.303021 -0.417880 0 127 127
-0.213646 -0.130191 -0.417880 0 127 127
-0.300662 0.107411 -0.417880 0 127 127
0.385788 0.800109 0.290738 76 0 153
0.136326 -0.219596 -0.417880 0 127 127
0.385788 -0.784280 0.031568 0 127 127
0.184435 0.859491 -0.330458 0 127 127
0.297274 -0.032476 0.263178 76 0 153
0.385788 -0.100859 -0.187667 0 127 127
0.385788 0.364868 -0.281691 0 127 127
-0.392564 -0.384861 -0.183075 0 127 127
-0.392564 0.400123 -0.225329 0 127 127
-0.392564 0.258214 -0.077864 0 127 127
0.376152 0.468399 -0.417880 0 127 127
0.385788 0.213570 -0.241381 0 127 127
0.128892 0.109798 -0.417880 0 127 127
-0.392564 0.712067 0.033828 0 127 127
-0.392564 0.674160 0.169267 0 127 127
0.385788 0.233133 0.038656 0 127 127
-0.235038 -0.456085 0.263178 76 0 153
-0.392564 -0.685102 0.219368 0 127 127
-0.392564 0.303834 -0.173823 0 127 127
0.152170 0.298329 -0.417880 0 127 127
0.296556 0.690908 -0.417880 0 127 127
0.385788 0.410760 0.234125 0 127 127
-0.314584 -0.399613 0.360472 76 0 153
0.385788 -0.591385 0.157477 0 127 127
0.314409 -0.481117 0.360472 76 0 153
0.374912 -0.535767 0.255178 0 127 127
-0.325848 -0.804558 0.263178 76 0 153
0.113497 -0.867549 -0.266037 0 127 127
-0.392564 -0.628009 -0.087124 0 127 127
0.218108 -0.867549 -0.264530 0 127 127
0.214688 0.565132 0.360472 76 0 153
-0.183877 -0.642345 0.360472 76 0 153
-0.186617 0.306299 0.344599 0 127 127
0.385788 0.378768 -0.194526 0 127 127
-0.165916 0.069991 -0.417880 0 127 127
0.385788 0.070012 0.300937 0 127 127
0.322728 -0.789215 -0.417880 0 127 127
-0.392564 -0.556945 -0.210775 0 127 127
0.211565 -0.049478 0.263178 76 0 153
0.385788 0.545646 0.029625 0 127 127
-0.007348 0.063798 -0.417880 0 127 127
-0.392564 -0.741947 0.054618 0 127 127
0.371178 0.605231 -0.417880 0 127 127
-0.322497 -0.094612 0.360472 76 0 153
0.165613 -0.315568 -0.417880 0 127 127
-0.362875 -0.867549 -0.414824 0 127 127
0.227496 0.244294 0.263178 76 0 153
0.330584 -0.708794 0.263178 76 0 153
-0.220535 -0.012850 0.360472 76 0 153
-0.327206 0.490434 0.360472 76 0 153
-0.239060 0.255176 0.263178 0 127 127
-0.033734 0.846549 -0.417880 0 127 127
0.131247 0.859491 0.152187 0 127 127
-0.392564 -0.784175 -0.271810 0 127 127
-0.392564 0.772802 0.207104 0 127 127
-0.392564 0.677177 -0.311952 0 127 127
0.128417 0.298045 0.360472 0 127 127
0.070333 0.859491 0.305665 0 127 127
0.039965 -0.405527 0.360472 76 0 153
-0.043868 -0.342385 0.263178 76 0 153
-0.221373 -0.867549 -0.379099 0 127 127
-0.083093 0.423399 0.360472 76 0 153
0.302820 -0.689999 -0.417880 0 127 127
-0.082082 -0.200584 -0.417880 0 127 127
0.385788 -0.009851 -0.040830 0 127 127
0.316107 -0.403703 -0.417880 0 127 127
-0.084381 -0.758932 0.360472 76 0 153
0.146011 -0.479032 -0.417880 0 127 127
0.385788 -0.584071 -0.017320 0 127 127
-0.392564 0.105660 -0.248934 0 127 127
-0.324294 -0.463202 0.263178 76 0 153
0.385788 -0.738950 -0.202415 0 127 127
-0.390933 0.306299 0.301478 0 127 127
-0.102795 0.257365 -0.417880 0 127 127
0.267911 -0.232174 0.360472 76 0 153
-0.246367 0.360339 0.360472 0 127 127
0.385788 -0.287179 0.065232 0 127 127
0.049935 0.859491 -0.086824 0 127 127
0.196825 0.035531 0.360472 76 0 153
0.177559 0.859491 -0.141849 0 127 127
-0.195502 0.596593 0.360472 76 0 153
-0.243003 -0.572970 -0.417880 0 127 127
0.385788 -0.560172 -0.379347 0 127 127
0.157244 0.130472 0.360472 76 0 153
0.385788 0.035482 0.048042 0 127 127
0.323903 -0.590497 0.360472 76 0 153
0.385788 0.445380 -0.334908 0 127 127
0.385788 -0.089461 -0.354056 0 127 127
0.261568 -0.558569 -0.417880 0 127 127
-0.392564 0.201252 -0.409682 0 127 127
0.385788 -0.372041 -0.190632 0 127 127
-0.324420 0.120074 0.263178 76 0 153
0.305300 0.152117 0.360472 76 0 153
-0.392564 -0.608371 -0.371924 0 127 127
-0.086763 -0.019779 0.360472 76 0 153
0.385788 0.642015 0.125200 0 127 127
0.304643 0.857802 -0.417880 0 127 127
0.118210 0.064877 0.263178 76 0 153
0.250445 0.047639 -0.417880 0 127 127
-0.221475 -0.740556 -0.417880 0 127 127
0.011923 0.859491 0.050072 0 127 127
-0.167643 -0.478556 0.360472 76 0 153
-0.250667 0.160831 0.360472 76 0 153
-0.366691 0.057109 0.360472 76 0 153
-0.392564 0.244527 -0.233631 0 127 127
0.385788 0.138557 -0.090882 0 127 127
0.310222 0.376183 -0.417880 0 127 127
-0.245840 -0.867549 0.247696 0 127 127
-0.357473 0.042339 -0.417880 0 127 127
-0.392564 -0.627985 0.279918 0 127 127
-0.024871 -0.569584 0.263178 76 0 153
0.065211 -0.033781 0.360472 76 0 153
0.181903 -0.059238 -0.417880 0 127 127
-0.092010 -0.867549 -0.264440 0 127 127
-0.392564 -0.109894 0.228728 0 127 127
-0.118731 -0.867549 -0.402356 0 127 127
0.385788 0.531165 -0.139064 0 127 127
-0.083072 -0.858426 0.263178 0 127 127
-0.392564 0.024503 0.070208 0 127 127
-0.221540 0.673751 -0.417880 0 127 127
-0.154706 0.790102 -0.417880 0 127 127
0.023033 0.444116 0.263178 76 0 153
-0.117620 0.839614 0.360472 0 127 127
0.305898 -0.867549 -0.399247 0 127 127
-0.392564 -0.413798 -0.261108 0 127 127
-0.001546 -0.258925 -0.417880 0 127 127
0.047938 -0.103250 -0.417880 0 127 127
0.318284 -0.045753 0.360472 76 0 153
-0.392564 -0.352422 0.122369 0 127 127
-0.392564 0.524607 -0.351647 0 127 127
-0.392564 -0.285454 0.039738 0 127 127
0.097242 0.555514 -0.417880 0 127 127
-0.099966 0.859491 -0.167969 0 127 127
-0.392564 -0.324683 -0.401802 0 127 127
-0.133748 0.145225 0.435329 153 0 76
-0.170478 -0.154073 0.360472 76 0 153
0.385788 -0.858755 0.064513 0 127 127
-0.224098 0.770335 0.263178 76 0 153
0.181118 0.400011 0.360472 76 0 153
0.385788 0.371110 0.112398 0 127 127
-0.173831 -0.867549 -0.247690 0 127 127
0.320061 0.524718 -0.417880 0 127 127
0.142006 0.380052 0.263178 76 0 153
-0.329737 -0.813633 0.360472 76 0 153
0.229429 -0.629759 0.360472 76 0 153
-0.392564 0.308810 0.199718 0 127 127
-0.248077 -0.814346 0.360472 76 0 153
-0.283050 -0.728640 0.263178 76 0 153
0.117622 -0.191648 0.360472 76 0 153
-0.392564 0.787881 -0.239616 0 127 127
0.237152 0.859491 0.280416 0 127 127
-0.392564 -0.853266 -0.134521 0 127 127
-0.392564 -0.446866 -0.128118 0 127 127
0.023492 0.074802 0.360472 76 0 153
0.330032 0.030219 -0.417880 0 127 127
-0.263890 0.859491 -0.349706 0 127 127
0.087428 0.514592 0.360472 76 0 153
0.385788 0.815153 0.137214 0 127 127
-0.329663 -0.867549 0.002429 0 127 127
0.385788 -0.241741 -0.355411 0 127 127
-0.122032 -0.689721 0.263178 76 0 153
-0.331401 0.574429 0.360472 76 0 153
-0.223265 0.435399 0.360472 76 0 153
-0.224957 0.859491 0.274628 0 127 127
0.224915 -0.181105 0.263178 76 0 153
-0.304504 -0.192317 0.263178 76 0 153
-0.173072 0.772861 0.360472 76 0 153
-0.029618 -0.665373 -0.417880 0 127 127
0.297883 -0.867549 -0.246165 0 127 127
0.198850 -0.285095 0.263178 76 0 153
-0.007236 0.742115 0.360472 76 0 153
0.385788 0.637795 -0.137813 0 127 127
0.385788 -0.026197 -0.206690 0 127 127
0.153706 0.222016 0.263178 76 0 153
0.385788 -0.488740 0.002697 0 127 127
-0.216353 -0.551017 0.360472 76 0 153
0.221144 -0.867549 -0.141976 0 127 127
0.385788 -0.482305 -0.303149 0 127 127
0.385788 -0.782560 -0.355104 0 127 127
-0.392564 -0.511947 0.213602 0 127 127
-0.061581 -0.530035 0.360472 76 0 153
-0.106098 0.717364 0.263178 76 0 153
-0.380861 -0.169488 -0.417880 0 127 127
-0.383686 -0.083667 -0.417880 0 127 127
0.186249 -0.392568 0.360472 76 0 153
-0.306573 0.739214 0.263178 76 0 153
-0.392564 0.129532 0.348048 76 0 153
0.385788 0.857658 -0.198770 0 127 127
0.385788 -0.210479 -0.243485 0 127 127
0.385788 0.022394 0.221814 0 127 127
0.223078 0.791255 -0.417880 0 127 127
0.385788 -0.791208 -0.047884 0 127 127
0.249671 0.859491 0.111177 0 127 127
-0.009516 -0.540028 -0.417880 0 127 127
0.150456 -0.663486 0.263178 76 0 153
-0.392564 -0.654539 0.146467 0 127 127
0.344350 -0.795793 0.360472 76 0 153
-0.099519 -0.867549 -0.116746 0 127 127
0.112409 0.362858 -0.417880 0 127 127
-0.209715 -0.360582 0.263178 76 0 153
-0.322812 -0.867549 0.128472 0 127 127
-0.097032 -0.439397 0.263178 76 0 153
-0.013007 0.118637 0.263178 76 0 153
-0.331085 0.211229 0.263178 76 0 153
-0.295441 -0.039685 0.263178 76 0 153
-0.169496 -0.867549 0.020003 0 127 127
-0.325654 -0.660065 0.360472 76 0 153
0.076663 0.055240 -0.417880 0 127 127
0.204102 0.601265 0.263178 76 0 153
-0.349577 -0.559012 0.360472 76 0 153
0.383624 -0.336014 0.360472 76 0 153
-0.392564 0.461573 0.092220 0 127 127
-0.197928 -0.421376 -0.417880 0 127 127
0.190165 -0.166839 -0.417880 0 127 127
-0.203058 -0.563407 0.263178 76 0 153
0.336638 0.796678 0.360472 76 0 153
-0.392564 -0.162124 -0.187399 0 127 127
0.385788 -0.475436 0.299489 0 127 127
0.275374 0.859491 -0.062116 0 127 127
0.289783 -0.867549 0.288281 0 127 127
0.171295 -0.809814 -0.417880 0 127 127
-0.317290 0.215052 0.360472 76 0 153
0.385788 -0.609085 0.240232 0 127 127
-0.330842 -0.582906 0.263178 76 0 153
-0.025641 0.424124 0.408575 153 76 0
-0.392564 -0.302772 -0.034432 0 127 127
-0.302534 -0.867549 -0.138828 0 127 127
0.328390 -0.367124 0.263178 76 0 153
-0.159141 -0.081379 0.263178 76 0 153
0.385788 0.128914 0.147846 0 127 127
0.358372 0.586377 0.263178 76 0 153
0.385788 0.775701 -0.057949 0 127 127
-0.097834 -0.337446 0.360472 76 0 153
0.385788 -0.813660 -0.179626 0 127 127
-0.392564 0.784580 0.050405 0 127 127
-0.315127 0.859491 0.207481 0 127 127
0.107182 -0.048746 -0.417880 0 127 127
-0.392564 0.809413 -0.035644 0 127 127
0.220457 0.183699 0.360472 76 0 153
0.330210 0.130708 0.263178 76 0 153
-0.008915 0.441177 -0.417880 0 127 127
0.199212 -0.109543 0.360472 76 0 153
-0.018008 0.292806 0.341170 0 127 127
0.385788 -0.056423 0.319684 76 0 153
0.133045 0.703273 -0.417880 0 127 127
0.095240 0.859491 0.066175 0 127 127
0.024011 0.789575 0.263178 76 0 153
0.385788 -0.215965 0.113677 0 127 127
0.215838 0.115462 0.263178 76 0 153
-0.392564 -0.637499 -0.250526 0 127 127
0.020058 0.859491 -0.179387 0 127 127
0.153624 0.859491 0.009622 0 127 127
-0.392564 -0.343102 0.267157 0 127 127
-0.392564 0.173374 -0.215403 0 127 127
-0.354506 0.859491 0.295182 0 127 127
-0.117899 0.416761 -0.417880 0 127 127
0.385788 0.149186 -0.003999 0 127 127
0.385788 0.124812 -0.377432 0 127 127
-0.292773 0.805252 -0.417880 0 127 127
-0.392564 -0.772474 0.204443 0 127 127
-0.054765 0.549218 -0.417880 0 127 127
-0.155315 0.191793 -0.417880 0 127 127
-0.267697 0.319791 0.303487 0 127 127
0.385788 -0.650425 -0.392882 0 127 127
0.375122 0.761074 -0.417880 0 127 127
-0.143432 0.566151 0.263178 76 0 153
0.029000 -0.867549 -0.005437 0 127 127
0.000980 -0.867549 0.334516 0 127 127
-0.392564 0.529602 0.219587 0 127 127
0.013934 -0.271970 0.360472 76 0 153
0.385788 -0.180281 0.323526 76 0 153
0.115280 0.859491 -0.353176 0 127 127
0.085382 -0.867549 0.078862 0 127 127
0.202572 0.241398 -0.417880 0 127 127
-0.179225 -0.867549 -0.143017 0 127 127
-0.392564 -0.707022 -0.177884 0 127 127
-0.392564 -0.099789 -0.011523 0 127 127
-0.144898 0.327869 -0.417880 0 127 127
-0.157799 0.148011 0.263178 76 0 153
0.216970 0.640057 -0.417880 0 127 127
-0.392564 -0.505801 -0.266963 0 127 127
0.159395 -0.256109 0.360472 76 0 153
0.385788 -0.281664 0.222297 0 127 127
-0.190532 0.226438 0.360472 76 0 153
-0.392564 0.664724 0.090259 0 127 127
-0.298939 0.698310 0.360472 76 0 153
-0.254631 -0.618022 0.263178 76 0 153
0.385788 0.374183 0.004218 0 127 127
-0.392564 0.610846 0.296749 76 0 153
-0.392564 -0.183344 0.306128 76 0 153
-0.284823 -0.197997 -0.417880 0 127 127
0.385788 -0.715808 -0.069344 0 127 127
0.074139 0.137509 0.263178 76 0 153
-0.392564 -0.445449 -0.399988 0 127 127
-0.063238 0.811287 0.263178 76 0 153
-0.026767 0.859491 -0.347519 0 127 127
0.324268 -0.293354 0.263178 76 0 153
0.058705 -0.020347 0.263178 76 0 153
0.385788 0.454576 -0.061816 0 127 127
0.125670 0.859491 -0.091040 0 127 127
0.085399 -0.130417 0.263178 76 0 153
-0.392564 0.709937 -0.380972 0 127 127
0.034159 0.408422 0.360472 153 76 0
0.154057 0.737859 0.263178 76 0 153
-0.117325 0.859491 0.278899 0 127 127
0.258590 0.292806 0.305283 0 127 127
-0.392564 -0.468069 0.292607 76 0 153
-0.047369 0.056101 0.263178 76 0 153
-0.318726 0.359744 0.263178 76 0 153
-0.220900 -0.867549 -0.029437 0 127 127
-0.271734 0.494816 0.263178 76 0 153
-0.324551 0.672139 -0.417880 0 127 127
-0.322831 0.859491 -0.020025 0 127 127
0.385788 -0.448405 0.222745 0 127 127
-0.392564 -0.732682 -0.350577 0 127 127
0.101347 -0.349363 -0.417880 0 127 127
0.026441 0.796591 -0.417880 0 127 127
-0.392564 0.043721 0.218707 0 127 127
-0.392564 -0.537824 -0.362583 0 127 127
-0.105300 -0.046613 -0.417880 0 127 127
0.248534 0.527110 -0.417880 0 127 127
0.385788 -0.139018 0.008876 0 127 127
-0.120406 -0.867549 0.326941 0 127 127
-0.392564 -0.789921 0.337419 76 0 153
0.385788 -0.823223 0.305278 0 127 127
0.095427 -0.612168 0.263178 76 0 153
0.337482 -0.515243 -0.417880 0 127 127
0.385788 0.568794 0.189259 0 127 127
0.305660 -0.085502 -0.417880 0 127 127
-0.087151 -0.090537 0.360472 76 0 153
0.385788 -0.402219 -0.405850 0 127 127
0.375825 -0.692492 0.360472 76 0 153
0.385788 -0.685185 -0.136205 0 127 127
0.189453 -0.387354 0.263178 76 0 153
-0.231722 -0.696504 0.360472 76 0 153
0.073285 0.319791 0.315413 0 127 127
0.385788 -0.020875 -0.314627 0 127 127
0.060370 0.604431 0.360472 76 0 153
-0.186128 -0.867549 0.088477 0 127 127
-0.311781 0.859491 -0.205938 0 127 127
0.042285 0.859491 -0.290111 0 127 127
0.121520 0.650447 0.360472 76 0 153
0.092869 0.837522 -0.417880 0 127 127
-0.392564 0.789016 -0.102901 0 127 127
-0.175670 0.107472 0.360472 76 0 153
-0.125568 0.859491 0.152890 0 127 127
0.256320 -0.445715 0.263178 76 0 153
-0.392564 0.308947 0.038320 0 127 127
0.336646 0.859491 -0.011271 0 127 127
0.385788 0.503552 -0.203533 0 127 127
-0.251448 -0.069503 -0.417880 0 127 127
-0.392564 -0.002059 -0.053875 0 127 127
-0.024209 -0.649097 0.360472 76 0 153
-0.027403 0.132729 -0.417880 0 127 127
-0.177233 -0.734457 0.263178 76 0 153
-0.097186 0.104232 -0.417880 0 127 127
-0.016506 0.859491 0.166859 0 127 127
-0.392564 0.559594 -0.016497 0 127 127
-0.119704 -0.208278 0.263178 76 0 153
0.329247 0.462432 0.360472 76 0 153
-0.054046 -0.410506 -0.417880 0 127 127
-0.300264 0.859491 -0.110234 0 127 127
0.385788 0.232044 0.186040 0 127 127
-0.184611 0.859491 -0.162157 0 127 127
0.385788 -0.402653 0.280499 0 127 127
-0.392564 0.528134 0.117631 0 127 127
-0.392564 -0.247934 0.182959 0 127 127
0.234188 0.859491 -0.402311 0 127 127
0.211450 -0.867549 -0.334703 0 127 127
0.138378 -0.516797 0.263178 76 0 153
0.212367 -0.722845 0.360472 76 0 153
-0.392564 -0.216175 0.054658 0 127 127
0.049933 -0.790697 -0.417880 0 127 127
-0.229891 0.550763 -0.417880 0 127 127
0.238833 -0.597388 0.263178 76 0 153
0.085194 0.208257 0.360472 76 0 153
0.385788 -0.485793 -0.230669 0 127 127
0.250910 0.859491 -0.160105 0 127 127
0.385788 -0.702494 -0.261410 0 127 127
-0.010499 0.859491 -0.052807 0 127 127
0.106739 0.795811 0.360472 76 0 153
0.096162 -0.396196 0.263178 76 0 153
0.271956 0.707159 0.263178 76 0 153
-0.011330 0.299088 -0.417880 0 127 127
-0.076129 0.703314 -0.417880 0 127 127
-0.392564 0.573848 0.052191 0 127 127
0.067636 -0.212388 -0.417880 0 127 127
-0.229316 0.859491 0.132172 0 127 127
0.257635 0.859491 -0.272376 0 127 127
0.381646 0.859491 -0.129781 0 127 127
0.052947 -0.335598 0.360472 76 0 153
-0.138252 -0.801871 0.360472 76 0 153
-0.335890 -0.867549 -0.351544 0 127 127
0.126435 0.476363 -0.417880 0 127 127
-0.322384 -0.867549 -0.261424 0 127 127
0.064296 0.196578 -0.417880 0 127 127
0.385788 -0.588489 -0.228378 0 127 127
-0.392564 -0.185039 -0.072329 0 127 127
0.242817 -0.413391 -0.417880 0 127 127
0.172974 -0.724528 -0.417880 0 127 127
-0.240836 -0.161471 0.263178 76 0 153
0.301943 -0.291559 -0.417880 0 127 127
0.385788 0.254412 0.291738 0 127 127
-0.392564 0.138338 -0.343364 0 127 127
0.063577 0.673239 0.263178 76 0 153
0.092089 0.562993 0.263178 76 0 153
0.385788 0.352688 0.328075 0 127 127
0.385788 -0.353929 -0.268940 0 127 127
-0.142491 0.279314 0.297190 0 127 127
-0.392564 0.040274 -0.173352 0 127 127
0.385788 -0.610844 -0.151791 0 127 127
-0.392564 -0.278911 0.291051 0 127 127
0.023717 -0.458114 0.263178 76 0 153
-0.056615 -0.711057 0.263178 76 0 153
-0.170050 -0.434469 0.263178 76 0 153
0.230128 -0.867549 -0.074340 0 127 127
-0.121863 0.483157 0.263178 76 0 153
-0.392564 -0.799552 0.099531 0 127 127
-0.392564 0.824064 -0.364795 0 127 127
0.385788 0.483922 0.095228 0 127 127
0.385788 0.206343 -0.350531 0 127 127
-0.135503 0.642082 -0.417880 0 127 127
-0.392564 -0.809599 -0.080685 0 127 127
-0.106368 0.345436 0.360472 0 127 127
-0.241133 0.213640 -0.417880 0 127 127
0.122224 -0.598085 -0.417880 0 127 127
-0.392564 -0.431043 0.015912 0 127 127
0.385788 -0.141352 -0.250651 0 127 127
-0.032890 0.811014 0.360472 76 0 153
-0.209759 0.742889 -0.417880 0 127 127
-0.387435 0.250535 0.263178 0 127 127
0.325495 0.581699 0.360472 76 0 153
0.385788 -0.135213 -0.126280 0 127 127
0.093209 -0.245697 0.263178 76 0 153
0.385788 0.051618 -0.186395 0 127 127
0.064078 -0.782248 0.263178 76 0 153
0.241379 0.379071 -0.417880 0 127 127
0.178025 -0.546213 0.360472 76 0 153
-0.234637 0.434754 -0.417880 0 127 127
0.326784 -0.171972 0.360472 76 0 153
-0.002079 -0.785307 0.360472 76 0 153
-0.392564 0.370624 0.322570 76 0 153
0.220405 0.785883 0.363032 76 0 153
-0.107496 0.859491 0.057034 0 127 127
-0.032184 -0.402214 0.360472 76 0 153
0.385788 -0.349572 0.128220 0 127 127
0.210078 0.359548 0.263178 76 0 153
-0.326600 0.454071 -0.417880 0 127 127
0.111549 -0.867549 -0.138110 0 127 127
0.350943 0.676725 0.360472 76 0 153
-0.137015 -0.239860 -0.417880 0 127 127
0.058397 -0.539362 0.360472 76 0 153
0.204046 -0.867549 0.357585 0 127 127
0.329460 0.279314 0.325080 0 127 127
-0.158927 0.420614 0.418690 153 76 0
-0.392564 -0.863978 -0.032358 0 127 127
0.111489 0.799715 0.263178 76 0 153
0.385788 -0.638023 0.045240 0 127 127
0.308314 -0.183253 0.263178 76 0 153
-0.034628 -0.415934 0.263178 76 0 153
-0.392564 -0.195449 -0.348708 0 127 127
-0.376166 0.390105 -0.417880 0 127 127
0.087899 0.448108 0.360472 76 0 153
-0.392564 0.173397 0.045750 0 127 127
-0.392564 0.042506 -0.004612 0 127 127
0.385788 0.486866 0.305282 76 0 153
0.385788 0.003398 0.290916 0 127 127
0.355496 0.073367 0.360472 76 0 153
0.385788 -0.423288 0.122191 0 127 127
-0.320763 0.859491 -0.312265 0 127 127
-0.042352 0.671313 0.263178 76 0 153
0.385788 0.704489 0.063332 0 127 127
0.234960 0.478758 0.360472 76 0 153
-0.330820 -0.275942 0.360472 76 0 153
0.181868 0.859491 0.194892 0 127 127
-0.089070 0.859491 -0.064440 0 127 127
-0.333483 0.859491 0.070531 0 127 127
-0.338059 0.627204 0.263178 76 0 153
0.163000 0.763785 -0.417880 0 127 127
-0.392564 0.618966 -0.171157 0 127 127
-0.031973 -0.008237 -0.417880 0 127 127
-0.219856 0.454053 0.263178 76 0 153
-0.026438 0.145340 0.360472 153 0 76
0.385788 -0.098375 0.187617 0 127 127
-0.392564 0.593233 -0.373284 0 127 127
-0.392564 -0.071918 0.064164 0 127 127
0.126225 0.859491 -0.213294 0 127 127
0.069586 -0.712756 -0.417880 0 127 127
-0.392564 -0.232967 -0.203696 0 127 127
-0.332061 0.399263 0.360472 76 0 153
-0.392564 -0.570901 -0.145603 0 127 127
0.250585 -0.867549 -0.200859 0 127 127
0.385788 0.189372 0.315270 76 0 153
0.385788 0.086989 -0.309874 0 127 127
0.310489 0.859491 0.207614 0 127 127
0.072004 0.859491 0.188269 0 127 127
-0.116682 -0.335656 -0.417880 0 127 127
0.385788 0.505032 0.173632 0 127 127
0.091650 0.201533 0.263178 76 0 153
-0.310682 -0.336937 -0.417880 0 127 127
0.324410 0.514826 0.263178 76 0 153
-0.231864 -0.077182 0.360472 76 0 153
0.000696 0.612928 -0.417880 0 127 127
0.385788 -0.307059 -0.347612 0 127 127
0.385788 0.605959 -0.354339 0 127 127
0.208652 0.252456 0.360472 0 127 127
0.385788 0.794663 0.199089 0 127 127
-0.366761 0.261153 -0.417880 0 127 127
-0.110087 0.673479 0.360472 76 0 153
-0.085507 0.803016 -0.417880 0 127 127
-0.340982 0.159567 -0.417880 0 127 127
0.385788 0.777626 0.074925 0 127 127
-0.075015 0.279314 0.292830 0 127 127
0.003499 -0.603716 -0.417880 0 127 127
-0.221516 -0.867549 0.309879 0 127 127
-0.362318 -0.164912 0.248536 76 0 153
-0.392564 0.318353 -0.105915 0 127 127
-0.392564 0.671772 -0.045554 0 127 127
0.385788 0.263711 -0.085749 0 127 127
-0.196912 -0.867549 0.204304 0 127 127
-0.209645 0.328211 -0.417880 0 127 127
-0.303430 0.069972 0.360472 76 0 153
-0.023133 0.570368 0.263178 76 0 153
0.313035 -0.519347 0.263178 76 0 153
-0.392564 0.606816 -0.244229 0 127 127
-0.392564 -0.671665 0.048357 0 127 127
-0.392564 -0.690867 0.302569 0 127 127
-0.043656 0.477045 0.263178 76 0 153
-0.392564 0.709489 0.324810 76 0 153
-0.078304 0.859491 -0.228545 0 127 127
0.385788 -0.532762 0.115919 0 127 127
-0.392564 -0.490305 -0.033493 0 127 127
-0.392564 0.602476 -0.064608 0 127 127
0.339898 0.695228 0.263178 76 0 153
-0.392564 -0.342893 -0.264858 0 127 127
-0.338131 -0.339953 0.360472 76 0 153
0.209361 -0.498249 -0.417880 0 127 127
-0.317030 -0.663277 -0.417880 0 127 127
0.209326 0.473549 -0.417880 0 127 127
0.165422 0.859491 0.288945 0 127 127
-0.039001 -0.811940 0.263178 76 0 153
0.007068 0.859491 0.348163 0 127 127
0.385788 -0.227829 0.181823 0 127 127
-0.392564 -0.559891 0.048979 0 127 127
-0.285209 -0.524943 -0.417880 0 127 127
0.327272 -0.867549 0.104353 0 127 127
-0.110643 -0.553932 -0.417880 0 127 127
-0.224306 -0.099808 0.263178 76 0 153
0.105577 -0.867549 -0.063210 0 127 127
-0.392564 -0.668942 -0.348717 0 127 127
-0.392564 0.011143 -0.305846 0 127 127
-0.366221 -0.742179 -0.417880 0 127 127
0.286414 -0.658902 0.263178 76 0 153
0.238195 -0.867549 0.054148 0 127 127
0.309094 0.859491 0.347981 0 127 127
-0.351013 -0.076022 0.263178 76 0 153
-0.392564 0.726609 -0.257009 0 127 127
0.238314 -0.752796 0.263178 76 0 153
0.385788 -0.555026 -0.121258 0 127 127
-0.392564 -0.273756 -0.090977 0 127 127
-0.221157 0.859491 -0.229082 0 127 127
0.385788 -0.265580 0.311208 76 0 153
0.156255 -0.867549 0.239744 0 127 127
-0.162011 -0.803036 0.263178 76 0 153
0.266551 0.352512 0.360472 0 127 127
-0.137432 -0.220362 0.360472 76 0 153
0.028125 0.733279 -0.417880 0 127 127
0.385788 0.361241 0.178055 0 127 127
0.333732 0.208933 0.360472 76 0 153
0.385788 -0.012653 0.089043 0 127 127
-0.105341 -0.315853 0.263178 76 0 153
-0.282403 -0.867549 -0.044101 0 127 127
0.242224 0.697813 0.360472 76 0 153
0.385788 0.376293 -0.131175 0 127 127
-0.214760 -0.344803 0.360472 76 0 153
-0.279962 0.176216 0.414181 153 0 76
-0.345140 -0.390880 0.263178 76 0 153
-0.281728 -0.407416 -0.417880 0 127 127
0.322696 -0.417782 0.360472 76 0 153
-0.062418 -0.136861 -0.417880 0 127 127
-0.392564 -0.025037 -0.194204 0 127 127
-0.224464 0.388632 0.263178 76 0 153
0.229624 -0.867549 0.166956 0 127 127
0.089920 0.731132 0.360472 76 0 153
-0.392564 0.709148 -0.118688 0 127 127
-0.012891 -0.237815 0.263178 76 0 153
0.385788 0.270718 0.094616 0 127 127
0.385788 0.859190 0.088661 0 127 127
-0.052685 0.396125 -0.417880 0 127 127
-0.265053 0.099591 0.263178 76 0 153
-0.214959 0.859491 0.033205 0 127 127
-0.392564 0.494334 -0.039352 0 127 127
0.385788 0.598269 -0.264904 0 127 127
-0.003841 0.361979 0.263178 76 0 153
0.385788 -0.720557 -0.336871 0 127 127
-0.087942 0.420614 0.428166 153 76 0
0.098300 -0.867549 0.202574 0 127 127
-0.354346 0.011961 0.263178 76 0 153
-0.392564 0.462885 -0.341122 0 127 127
0.385788 0.830749 -0.258205 0 127 127
-0.310147 0.279314 0.331539 0 127 127
0.385788 -0.271293 -0.416783 0 127 127
0.120812 -0.800630 0.360472 76 0 153
-0.091698 -0.527620 0.263178 76 0 153
-0.392564 -0.832645 -0.232486 0 127 127
-0.135978 0.084221 0.263178 76 0 153
-0.144240 0.859491 0.214562 0 127 127
0.379770 0.070617 -0.417880 0 127 127
0.201211 0.181670 0.263178 76 0 153
-0.038581 -0.867549 -0.092403 0 127 127
-0.193830 -0.227670 0.263178 76 0 153
-0.343890 -0.714456 0.263178 76 0 153
-0.392564 0.543429 -0.260662 0 127 127
-0.392564 0.120856 -0.099120 0 127 127
-0.392564 0.332637 -0.327501 0 127 127
-0.113882 -0.124376 0.263178 76 0 153
0.065425 0.859491 -0.225776 0 127 127
0.049108 -0.867549 0.288242 0 127 127
0.330022 0.398072 0.360472 76 0 153
0.232290 -0.095413 -0.417880 0 127 127
0.350089 0.859491 -0.367503 0 127 127
-0.382709 -0.068302 0.360472 76 0 153
-0.392564 -0.141176 0.110959 0 127 127
-0.163500 -0.176987 -0.417880 0 127 127
-0.095484 -0.867549 0.000674 0 127 127
0.148910 -0.867538 -0.417880 0 127 127
-0.351958 0.859491 -0.147421 0 127 127
0.074115 0.614743 -0.417880 0 127 127
0.328589 -0.168759 -0.417880 0 127 127
-0.392564 -0.460166 0.174567 0 127 127
0.385788 0.598267 -0.002756 0 127 127
-0.231797 0.027990 0.263178 76 0 153
0.108075 0.323307 0.263178 76 0 153
0.022741 0.719526 0.263178 76 0 153
0.324924 0.859491 0.052153 0 127 127
-0.392564 -0.298322 -0.156611 0 127 127
-0.392564 -0.383085 0.186440 0 127 127
-0.376175 -0.148164 0.360472 76 0 153
0.321186 0.196852 0.263178 76 0 153
0.385788 -0.679168 0.270505 0 127 127
0.329736 0.385334 0.263178 76 0 153
0.385788 0.683634 -0.033527 0 127 127
-0.392564 0.438950 -0.105915 0 127 127
-0.392564 0.423439 0.195893 0 127 127
0.385788 0.271363 -0.395752 0 127 127
0.256029 0.013176 0.263178 76 0 153
-0.392564 0.499861 -0.216837 0 127 127
-0.173397 -0.689235 -0.417880 0 127 127
-0.095019 0.214018 0.360472 76 0 153
-0.384249 -0.568455 -0.417880 0 127 127
-0.392564 -0.238760 0.353447 76 0 153
-0.156645 -0.471955 -0.417880 0 127 127
-0.058409 -0.867549 0.100547 0 127 127
0.385788 0.700058 -0.264842 0 127 127
0.172100 0.859491 -0.267592 0 127 127
-0.327724 0.333405 -0.417880 0 127 127
0.322556 0.859491 -0.310026 0 127 127
-0.312016 -0.460910 0.360472 76 0 153
-0.111376 0.104763 0.360472 76 0 153
-0.392564 0.446908 0.028128 0 127 127
0.385788 0.124937 -0.252355 0 127 127
-0.064480 -0.595809 0.360472 76 0 153
0.055880 -0.476311 -0.417880 0 127 127
0.385788 0.741576 -0.184350 0 127 127
0.381710 -0.474205 0.360472 76 0 153
0.273244 -0.217516 -0.417880 0 127 127
0.385788 -0.579235 0.300320 0 127 127
0.385788 -0.179564 -0.078833 0 127 127
-0.148943 0.445966 0.360472 76 0 153
0.385788 -0.079779 0.085039 0 127 127
0.385788 0.686499 0.169708 0 127 127
-0.275749 0.163519 -0.417880 0 127 127
0.052635 -0.867549 -0.267530 0 127 127
0.385788 -0.709511 0.151778 0 127 127
-0.259848 -0.319096 0.263178 76 0 153
-0.390505 0.488257 0.360472 76 0 153
-0.231487 -0.290661 -0.417880 0 127 127
-0.392564 -0.120491 -0.285312 0 127 127
-0.023762 0.672691 -0.417880 0 127 127
-0.155158 -0.019429 0.263178 76 0 153
-0.294363 0.548052 -0.417880 0 127 127
-0.392564 0.798014 0.149597 0 127 127
-0.392564 0.156199 0.155686 0 127 127
0.385788 -0.835448 0.198349 0 127 127
-0.211919 0.859491 -0.108170 0 127 127
-0.319002 -0.867549 0.266932 0 127 127
0.322180 0.170804 -0.417880 0 127 127
-0.392564 -0.511705 -0.157819 0 127 127
-0.125322 0.518338 -0.417880 0 127 127
0.385788 0.668376 -0.361030 0 127 127
0.233747 -0.812976 0.263178 76 0 153
0.385788 0.497061 -0.006096 0 127 127
-0.392564 -0.848166 -0.358490 0 127 127
-0.221174 -0.867549 -0.288845 0 127 127
0.385788 -0.646535 -0.017387 0 127 127
-0.090998 -0.647770 -0.417880 0 127 127
-0.317567 -0.867549 0.068488 0 127 127
-0.203896 0.189978 0.263178 76 0 153
0.385788 0.178852 0.064529 0 127 127
0.385788 0.577403 -0.098686 0 127 127
-0.286777 0.859491 0.305617 0 127 127
0.351760 -0.779798 0.263178 76 0 153
-0.333197 0.611295 -0.417880 0 127 127
0.329371 -0.737738 0.360472 76 0 153
0.217052 0.580120 -0.417880 0 127 127
0.287215 0.259202 -0.417880 0 127 127
0.382592 -0.786699 -0.417880 0 127 127
-0.169017 0.853973 -0.417880 0 127 127
-0.115473 -0.867549 0.213633 0 127 127
-0.059079 -0.729461 -0.417880 0 127 127
-0.392564 -0.677575 -0.120602 0 127 127
0.016420 -0.867549 0.190785 0 127 127
-0.346158 0.859491 -0.254856 0 127 127
-0.220777 -0.755246 0.360472 76 0 153
0.106808 -0.186196 0.263178 76 0 153
-0.390383 0.859491 -0.413394 0 127 127
-0.212912 0.614651 -0.417880 0 127 127
-0.149211 0.012655 -0.417880 0 127 127
0.380856 0.859491 0.294670 0 127 127
-0.049410 -0.867549 0.041574 0 127 127
-0.242115 0.809927 0.360472 76 0 153
0.385788 -0.427668 0.035796 0 127 127
-0.392564 -0.593156 0.137384 0 127 127
0.164847 -0.334357 0.360472 76 0 153
0.385788 -0.435145 -0.196481 0 127 127
0.035558 0.329477 0.360472 0 127 127
-0.301012 0.777480 0.360472 76 0 153
0.099071 0.117856 0.360472 76 0 153
-0.258321 0.859491 0.225189 0 127 127
0.385788 0.282020 0.218306 0 127 127
0.184063 0.488944 0.263178 76 0 153
0.193124 0.063107 -0.417880 0 127 127
-0.344879 0.413042 0.263178 76 0 153
0.242013 -0.357941 0.360472 76 0 153
-0.069186 0.569268 0.360472 76 0 153
-0.392564 -0.042345 0.177606 0 127 127
0.211235 0.859491 -0.003936 0 127 127
-0.392564 -0.023907 0.104225 0 127 127
-0.066815 -0.701684 0.360472 76 0 153
0.139667 -0.431279 0.360472 76 0 153
-0.330606 -0.523356 0.263178 76 0 153
-0.323904 -0.448790 -0.417880 0 127 127
0.205450 0.179124 -0.417880 0 127 127
-0.392564 -0.169598 -0.015316 0 127 127
-0.388685 0.304939 0.360472 0 127 127
0.164038 -0.607895 0.360472 76 0 153
-0.106472 0.181546 0.263178 76 0 153
0.385788 -0.595539 0.357255 76 0 153
0.001647 -0.701825 0.263178 76 0 153
-0.344504 0.733782 -0.417880 0 127 127
0.305824 0.859491 -0.186833 0 127 127
0.385788 -0.063157 -0.067695 0 127 127
-0.392564 0.531796 -0.148283 0 127 127
0.385788 -0.716208 0.068799 0 127 127
0.171701 -0.719375 0.263178 76 0 153
0.163435 -0.867549 0.022383 0 127 127
-0.392564 -0.731112 -0.231511 0 127 127
0.385788 -0.605218 -0.337362 0 127 127
-0.392564 -0.162162 -0.126359 0 127 127
0.385788 -0.349164 0.230827 0 127 127
0.385788 0.139142 0.279772 0 127 127
0.281376 0.292987 0.360472 0 127 127
0.385788 0.265314 -0.272440 0 127 127
0.024576 0.279314 0.299043 0 127 127
0.385788 -0.639724 -0.263333 0 127 127
-0.251163 0.714895 0.263178 76 0 153
0.322816 -0.087625 0.263178 76 0 153
0.027769 -0.134877 0.360472 76 0 153
-0.367360 0.184765 0.360472 76 0 153
0.000283 0.859491 0.286657 0 127 127
0.145045 -0.131523 0.360472 76 0 153
0.123482 0.688057 0.263178 76 0 153
0.164306 0.806852 0.360472 76 0 153
0.190792 0.279314 0.311817 0 127 127
-0.386162 -0.811348 0.248536 0 127 127
-0.392564 -0.073324 -0.140492 0 127 127
-0.392564 0.178449 0.218444 0 127 127
-0.338324 -0.224968 -0.417880 0 127 127
0.329176 0.319791 0.279671 0 127 127
0.263228 -0.297976 0.263178 76 0 153
-0.065233 0.476650 0.418316 153 76 0
-0.392564 0.588379 0.359631 76 0 153
-0.032330 -0.150272 0.360472 76 0 153
-0.019048 0.503305 -0.417880 0 127 127
0.066459 0.027583 0.360472 76 0 153
0.073647 0.500720 -0.417880 0 127 127
-0.351576 0.859491 0.159034 0 127 127
0.005113 -0.867549 0.130575 0 127 127
-0.392564 -0.818975 0.036827 0 127 127
0.249417 0.477192 0.263178 76 0 153
-0.392564 0.203543 -0.349987 0 127 127
-0.112272 -0.501688 0.360472 76 0 153
0.316157 -0.867549 0.165234 0 127 127
0.253591 -0.491722 0.360472 76 0 153
-0.392564 0.574013 0.170655 0 127 127
-0.392564 0.817649 -0.153324 0 127 127
-0.274794 0.476650 0.411221 153 76 0
-0.286586 -0.867549 -0.382028 0 127 127
0.027492 0.213610 0.360472 76 0 153
0.071404 -0.343851 0.263178 76 0 153
-0.368673 0.559268 0.263178 76 0 153
-0.243478 0.681758 0.360472 76 0 153
0.223717 0.740339 0.263178 76 0 153
0.385788 -0.427095 -0.320865 0 127 127
0.385788 -0.818591 0.106160 0 127 127
-0.392564 0.790752 0.345802 76 0 153
-0.184386 -0.359802 -0.417880 0 127 127
-0.392564 -0.390461 -0.382319 0 127 127
0.385788 0.330573 -0.413568 0 127 127
-0.392564 -0.371483 -0.044813 0 127 127
-0.154858 0.126582 -0.417880 0 127 127
-0.345003 -0.807967 -0.417880 0 127 127
0.385788 -0.301083 -0.072290 0 127 127
0.191230 0.859491 0.135360 0 127 127
0.180449 0.350860 -0.417880 0 127 127
0.345830 -0.867549 -0.278225 0 127 127
-0.306386 -0.156213 0.360472 76 0 153
-0.392564 0.422271 0.297307 76 0 153
-0.228444 -0.494812 0.360472 76 0 153
-0.277451 0.859491 -0.406764 0 127 127
0.327471 -0.867549 0.331617 0 127 127
0.385788 0.013599 -0.414587 0 127 127
-0.105628 0.391341 0.263178 76 0 153
-0.335382 0.653228 0.360472 76 0 153
-0.391272 -0.867549 0.206496 0 127 127
-0.234808 0.087970 -0.417880 0 127 127
-0.229424 -0.703189 0.263178 76 0 153
-0.348462 -0.290001 -0.417880 0 127 127
0.375876 0.608892 0.360472 76 0 153
0.385788 0.395743 0.057237 0 127 127
-0.392564 0.659468 0.228079 0 127 127
0.143404 0.013031 0.263178 76 0 153
-0.001896 -0.145058 0.263178 76 0 153
0.156379 -0.742463 0.360472 76 0 153
0.025723 0.527499 0.360472 76 0 153
-0.063049 -0.865316 -0.417880 0 127 127
0.385788 0.337509 -0.345616 0 127 127
-0.392564 0.167716 -0.132217 0 127 127
0.277205 -0.867549 -0.119926 0 127 127
0.385788 0.174263 0.196387 0 127 127
0.010865 -0.513570 0.263178 76 0 153
-0.155997 0.623816 0.263178 76 0 153
-0.163111 0.859491 0.312478 0 127 127
-0.392564 -0.241520 -0.268266 0 127 127
0.280774 0.587217 0.263178 76 0 153
-0.392564 -0.070713 -0.347885 0 127 127
0.367887 -0.867549 -0.167545 0 127 127
0.385788 -0.237567 -0.144251 0 127 127
-0.037292 0.456768 0.360472 76 0 153
0.385788 -0.498836 -0.131096 0 127 127
-0.039967 0.859491 -0.186902 0 127 127
-0.035572 0.859491 0.242871 76 0 153
0.385788 -0.003852 0.170778 0 127 127
0.385788 0.194331 -0.100370 0 127 127
0.080756 0.850161 0.360472 0 127 127
0.163047 -0.867549 -0.296674 0 127 127
0.385788 -0.409595 -0.091454 0 127 127
0.274992 0.820639 0.263178 76 0 153
0.385788 -0.085623 -0.012314 0 127 127
0.272258 -0.814616 -0.417880 0 127 127
0.187825 -0.611532 -0.417880 0 127 127
-0.392564 0.584327 -0.119219 0 127 127
0.227923 0.859491 0.059087 0 127 127
0.138459 -0.279431 0.263178 76 0 153
0.165911 0.535986 0.360472 76 0 153
-0.365811 0.318169 0.248536 0 127 127
0.346443 0.420452 -0.417880 0 127 127
-0.392564 0.383073 -0.280242 0 127 127
-0.392564 -0.739557 -0.034384 0 127 127
0.385788 -0.205218 -0.402668 0 127 127
0.275937 0.135698 -0.417880 0 127 127
-0.164146 -0.006974 0.360472 76 0 153
-0.271425 -0.819883 0.263178 76 0 153
-0.392564 -0.200601 0.125165 0 127 127
-0.392564 -0.393135 -0.111440 0 127 127
-0.392564 -0.793586 -0.332645 0 127 127
0.385788 0.500410 -0.323455 0 127 127
-0.392564 -0.627402 -0.310884 0 127 127
-0.392564 -0.057954 -0.059572 0 127 127
0.119417 -0.867549 0.123550 0 127 127
-0.062950 -0.355052 -0.417880 0 127 127
0.350988 -0.639904 0.360472 76 0 153
-0.066697 -0.867549 -0.203405 0 127 127
0.385788 -0.122958 0.131334 0 127 127
-0.392564 0.380926 -0.069901 0 127 127
-0.392564 0.358692 -0.185195 0 127 127
0.385788 0.546475 0.296496 76 0 153
0.327415 0.644280 -0.417880 0 127 127
-0.049184 0.164484 0.263178 76 0 153
0.385788 -0.261352 -0.030668 0 127 127
0.269299 0.576693 0.360472 76 0 153
-0.172234 -0.864830 -0.417880 0 127 127
-0.254842 -0.867549 0.190415 0 127 127
-0.083288 0.159496 0.360472 76 0 153
0.277811 -0.286976 0.360472 76 0 153
0.379627 0.490371 0.360472 76 0 153
0.085481 -0.159704 -0.417880 0 127 127
-0.333577 0.516164 0.263178 76 0 153
0.018415 -0.408090 -0.417880 0 127 127
0.259381 0.080302 0.263178 76 0 153
-0.132949 0.859491 -0.342056 0 127 127
0.381477 -0.729940 0.248536 0 127 127
0.385788 0.697780 0.301916 76 0 153
-0.073995 -0.018063 0.263178 76 0 153
-0.029550 -0.789865 -0.417880 0 127 127
0.385788 0.460091 0.206036 0 127 127
0.013650 -0.867549 -0.204888 0 127 127
-0.283428 0.454536 0.360472 153 76 0
0.009099 -0.867549 -0.057133 0 127 127
-0.392564 0.070055 -0.124221 0 127 127
-0.339474 0.794758 0.263178 76 0 153
0.385788 -0.327081 0.178711 0 127 127
0.078374 -0.071999 0.263178 76 0 153
0.191652 -0.531436 0.263178 76 0 153
0.329418 -0.457306 -0.417880 0 127 127
0.205452 -0.009361 -0.417880 0 127 127
0.384897 -0.600605 -0.417880 0 127 127
-0.222567 -0.507728 -0.417880 0 127 127
-0.232506 -0.803517 -0.417880 0 127 127
0.327700 -0.534584 0.360472 76 0 153
0.385788 -0.646963 0.162049 0 127 127
0.385788 0.181996 -0.196295 0 127 127
0.123513 -0.515412 0.360472 76 0 153
-0.148809 0.859491 -0.283405 0 127 127
0.359390 -0.097286 -0.417880 0 127 127
-0.392564 0.384444 -0.005626 0 127 127
0.139463 -0.431450 0.263178 76 0 153
-0.168669 -0.095459 -0.417880 0 127 127
-0.006424 -0.121309 -0.417880 0 127 127
0.066504 -0.596810 0.360472 76 0 153
0.385788 0.789322 -0.004738 0 127 127
0.329206 -0.867549 -0.348293 0 127 127
0.157824 0.350332 0.360472 0 127 127
0.270256 0.407546 0.263178 76 0 153
-0.392564 0.266356 -0.290490 0 127 127
-0.223661 0.135515 0.263178 76 0 153
-0.112240 0.859491 -0.003463 0 127 127
0.358917 -0.867549 -0.066003 0 127 127
-0.004617 0.247073 0.263178 76 0 153
-0.109999 -0.867549 0.118972 0 127 127
-0.087257 -0.867549 -0.057761 0 127 127
-0.013559 -0.292516 0.263178 76 0 153
-0.155776 0.359895 0.263178 76 0 153
0.385788 -0.561972 0.203519 0 127 127
-0.357889 -0.867549 0.317734 0 127 127
0.107700 0.252020 -0.417880 0 127 127
0.024677 -0.307396 -0.417880 0 127 127
0.004013 0.630792 0.360472 76 0 153
0.385788 0.210759 -0.295837 0 127 127
-0.346500 0.814565 -0.417880 0 127 127
0.385788 0.488300 -0.104663 0 127 127
0.085123 0.504050 0.263178 76 0 153
0.226899 0.306646 0.263178 0 127 127
0.385788 -0.125723 0.308469 76 0 153
-0.392564 0.274559 -0.023311 0 127 127
0.062632 -0.188062 0.360472 76 0 153
-0.123597 0.552103 0.360472 76 0 153
-0.341220 -0.755350 0.360472 76 0 153
-0.275797 0.575196 0.360472 76 0 153
-0.289265 -0.229339 0.360472 76 0 153
0.385788 0.814400 -0.365676 0 127 127
0.385788 -0.367241 -0.048999 0 127 127
0.123328 0.279314 0.309700 0 127 127
0.385788 0.583087 0.071409 0 127 127
0.124052 0.422104 -0.417880 0 127 127
0.385788 0.011668 -0.092417 0 127 127
0.380082 0.522584 -0.417880 0 127 127
0.333525 -0.239863 0.263178 76 0 153
0.214486 -0.867549 0.222301 0 127 127
0.385788 -0.172471 0.236309 0 127 127
0.385788 -0.520702 0.046425 0 127 127
-0.050740 0.617677 0.263178 76 0 153
0.160069 -0.867549 -0.039380 0 127 127
0.219477 -0.234969 0.263178 76 0 153
0.015936 0.859491 -0.003914 0 127 127
-0.345378 0.812858 0.360472 76 0 153
0.201402 -0.867549 0.120599 0 127 127
0.071634 0.420331 0.263178 76 0 153
-0.172464 0.176650 0.414332 153 0 76
0.008856 0.173165 -0.417880 0 127 127
0.234311 0.859491 -0.097243 0 127 127
-0.392564 -0.326772 0.074552 0 127 127
0.385788 -0.509275 -0.352136 0 127 127
-0.050462 -0.202921 0.360472 76 0 153
-0.023742 -0.069290 0.263178 76 0 153
0.385788 0.782860 -0.303972 0 127 127
-0.392564 -0.688341 0.099665 0 127 127
-0.392564 0.067099 -0.385229 0 127 127
-0.152877 0.265066 0.360472 0 127 127
0.257462 0.741295 -0.417880 0 127 127
0.232443 -0.814073 0.360472 76 0 153
0.117470 -0.775082 0.263178 76 0 153
0.176924 0.606838 0.360472 76 0 153
-0.392564 0.166430 -0.010396 0 127 127
-0.392564 0.075648 0.053337 0 127 127
-0.087869 0.034055 0.360472 76 0 153
-0.392564 -0.285026 0.237559 0 127 127
-0.392564 0.117442 -0.042676 0 127 127
-0.392564 0.731124 0.171545 0 127 127
0.116495 -0.637100 0.360472 76 0 153
0.374912 0.650259 0.257214 0 127 127
-0.130828 -0.608092 0.360472 76 0 153
-0.046557 -0.867549 0.221786 0 127 127
